# .PCD v0.7 - Point Cloud Data file format
VERSION 0.7
FIELDS x y z
SIZE 4 4 4
TYPE F F F
COUNT 1 1 1
WIDTH 398
HEIGHT 1
VIEWPOINT 0 0 0 1 0 0 0
POINTS 398
DATA ascii
2.1831136 1.7073807 -0.63984692
2.1393545 1.707324 -0.63191158
2.0997891 1.7098138 -0.62516087
2.0586855 1.7102816 -0.61790037
2.0188305 1.7110003 -0.61095846
1.9827119 1.7141709 -0.60509968
1.9450399 1.7153097 -0.59872127
1.9387388 1.7439398 -0.60203117
1.9381927 1.7782359 -0.60726202
1.9348614 1.8105395 -0.61176676
1.9383863 1.8499202 -0.61860287
1.9367723 1.8851151 -0.62397331
1.939598 1.9253653 -0.63095266
1.9361669 1.9601309 -0.63607574
2.7570653 1.7115347 -0.63078517
2.6910515 1.7074389 -0.61949331
2.6507673 1.7186674 -0.61408043
2.5891879 1.7151361 -0.60369259
2.5333428 1.7142198 -0.59457332
2.4767935 1.711699 -0.58522332
2.422543 1.7096462 -0.5763492
2.3704283 1.7080293 -0.5679189
2.3203001 1.7068183 -0.55990285
2.2746658 1.7079713 -0.55291706
2.2280207 1.7074624 -0.54563349
2.1829891 1.7072833 -0.53869069
2.1394634 1.7074111 -0.53206736
2.0997174 1.7097553 -0.52633846
2.0588386 1.7104087 -0.52028215
2.0191975 1.7113112 -0.51449215
1.9807159 1.7124453 -0.50895298
1.9454522 1.7156733 -0.50420243
1.9394577 1.7445863 -0.50707024
1.9366748 1.7768433 -0.51088607
1.935648 1.8112755 -0.51528865
1.9394755 1.8509597 -0.52112758
1.9356917 1.8840634 -0.52506346
1.9408636 1.9266217 -0.53157949
1.9353157 1.9592693 -0.5353108
1.9404566 2.0034993 -0.54215586
1.9376533 2.0403733 -0.54695177
1.9329383 2.0759101 -0.5513562
1.9397103 2.1246946 -0.55922031
1.9376752 2.1648359 -0.56474334
1.9358484 2.2060664 -0.57050574
1.9320967 2.2459574 -0.57588083
1.9414475 2.3022335 -0.58538717
1.9406757 2.3477776 -0.59208679
1.9401993 2.3947673 -0.59909683
1.9378008 2.4404819 -0.60573697
1.9379486 2.4905672 -0.61340898
1.9384613 2.5424161 -0.6214543
1.939364 2.5961525 -0.62989742
1.9383811 2.6487634 -0.63800693
2.8684664 1.7034738 -0.52839404
2.8242772 1.715018 -0.52333528
2.7553155 1.7104484 -0.51364851
2.6923277 1.7082486 -0.50501323
2.6521275 1.7195494 -0.50062013
2.5907176 1.7161493 -0.49218982
2.5319669 1.7132888 -0.48420554
2.4756808 1.7109299 -0.47663587
2.4216805 1.7090373 -0.46945211
2.3698044 1.7075796 -0.46262833
2.3221395 1.7081715 -0.45658028
2.2739995 1.7074708 -0.45039442
2.227576 1.7071216 -0.44450292
2.1827555 1.7071005 -0.43888757
2.139431 1.7073852 -0.43353114
2.0994554 1.7095419 -0.4288162
2.0587726 1.7103539 -0.42392132
2.0193174 1.7114129 -0.41924205
1.9810131 1.7127022 -0.41476595
1.9455522 1.7157615 -0.41085395
1.9398214 1.7449135 -0.41324711
1.937211 1.7773352 -0.41639405
1.9342868 1.8100017 -0.41957086
1.9400975 1.8515532 -0.42475998
1.9364823 1.8848327 -0.42800555
1.9399012 1.9256663 -0.4329254
1.9362732 1.9602387 -0.43639636
1.9411645 2.00423 -0.44191912
1.9364901 2.0391486 -0.44539824
1.9336442 2.076668 -0.44941866
1.9401612 2.1251884 -0.45576832
1.9379511 2.1651442 -0.4602282
1.9341927 2.2041795 -0.4644604
1.9323865 2.2462943 -0.46930808
1.9414743 2.3022652 -0.47699022
1.9405237 2.3475935 -0.4824048
1.9398665 2.3943567 -0.48807082
1.9376829 2.4403334 -0.49353498
1.9376522 2.4901865 -0.49973983
1.9379839 2.5417898 -0.50624698
1.9387046 2.5952699 -0.51307684
1.9398425 2.6507604 -0.52025098
1.939517 2.705744 -0.52727377
2.869262 1.7039464 -0.40974116
2.8251488 1.7155473 -0.40583101
2.7563379 1.7110831 -0.39834407
2.6907566 1.7072518 -0.39127356
2.6506808 1.7186114 -0.38788462
2.5895011 1.7153435 -0.38138175
2.5309694 1.7126137 -0.37522331
2.476805 1.7117069 -0.36967078
2.4229345 1.7099224 -0.36412239
2.371181 1.7085716 -0.35885227
2.3213961 1.7076247 -0.35384193
2.2734444 1.7070541 -0.34907454
2.2272003 1.7068337 -0.34453443
2.1825504 1.7069403 -0.3402074
2.1409574 1.7086031 -0.3363266
2.0991328 1.7092793 -0.33238059
2.0586114 1.71022 -0.32861128
2.0193102 1.7114068 -0.32500833
1.9811523 1.7128226 -0.32156205
1.9440666 1.7144514 -0.31826359
1.9399382 1.7450186 -0.32038131
1.9374696 1.7775725 -0.32284474
1.9346851 1.8103745 -0.32533136
1.9390155 1.8505206 -0.32910353
1.9355633 1.8839382 -0.33164576
1.9405057 1.9262664 -0.33572185
1.9368087 1.9607807 -0.33840159
1.9401628 2.003196 -0.34241268
1.937027 2.0397139 -0.34538233
1.9340423 2.0770957 -0.34847507
1.9403491 2.1253943 -0.35336003
1.9379961 2.1651945 -0.35679153
1.9344692 2.2044947 -0.36011568
1.9325224 2.2464521 -0.36384782
1.9413953 2.3021715 -0.36976263
1.9402989 2.3473215 -0.37393191
1.9394947 2.3938978 -0.37829515
1.9390041 2.4419973 -0.38286462
1.9373982 2.4898598 -0.38736311
1.9375843 2.5412657 -0.39237753
1.9381576 2.5945375 -0.39764091
1.9391469 2.6498098 -0.4031702
1.9405824 2.7072303 -0.40898359
2.8695872 1.7041395 -0.29198924
2.8255374 1.7157834 -0.28920978
2.7568502 1.7114012 -0.28388804
2.6913865 1.7076513 -0.27886251
2.6513648 1.7190548 -0.27645385
2.5902932 1.7158682 -0.27183211
2.5318644 1.7132194 -0.26745543
2.475884 1.7110703 -0.2633065
2.4221742 1.7093859 -0.25936958
2.3705738 1.7081341 -0.25563037
2.3209345 1.7072852 -0.2520757
2.2743514 1.7077351 -0.2488281
2.2281966 1.7075973 -0.24560368
2.1836314 1.7077857 -0.24253075
2.1405497 1.7082779 -0.23959985
2.0988545 1.7090528 -0.23680241
2.0584564 1.7100914 -0.2341304
2.0192723 1.7113748 -0.23157646
1.981226 1.7128862 -0.2291337
1.9442462 1.7146097 -0.22679584
1.9398961 1.7449808 -0.22827893
1.937537 1.7776341 -0.23004714
1.9348595 1.8105377 -0.23183188
1.9393494 1.8508393 -0.23453914
1.9360001 1.8843634 -0.23636353
1.9398082 1.9255741 -0.2391286
1.936052 1.9600146 -0.24102978
1.9405493 2.0035949 -0.24403064
1.9373078 2.0400095 -0.24613373
1.9342169 2.0772831 -0.24832414
1.9403623 2.1254086 -0.25178415
1.9378995 2.1650865 -0.25421482
1.9346479 2.2046983 -0.25661978
1.9325943 2.2465358 -0.25926504
1.9413042 2.3020635 -0.26345754
1.9400975 2.3470778 -0.26641303
1.9391817 2.3935113 -0.26950619
1.9385786 2.4414616 -0.2727457
1.9383112 2.4910333 -0.27614099
1.9384043 2.5423415 -0.27970222
1.9378279 2.5940962 -0.28328606
1.9387063 2.6492078 -0.2872088
1.9400296 2.7064593 -0.29133335
2.8685057 1.7034972 -0.17484254
2.8245268 1.7151697 -0.17318153
2.7559702 1.7108549 -0.17000136
2.6906309 1.7071719 -0.16699834
2.6506712 1.7186052 -0.16555907
2.5905931 1.7160668 -0.16285272
2.5322413 1.7134744 -0.16023596
2.4763341 1.7113814 -0.15775551
2.4226937 1.7097524 -0.15540184
2.3711596 1.7085561 -0.15316647
2.321583 1.7077621 -0.15104148
2.2738297 1.7073435 -0.14901973
2.2277739 1.7072734 -0.1470945
2.1833034 1.7075289 -0.1452598
2.1403112 1.7080876 -0.14350998
2.0987015 1.7089282 -0.14183991
2.0583844 1.7100315 -0.14024475
2.0192778 1.7113793 -0.13872014
1.9813049 1.7129545 -0.13726199
1.9443949 1.7147409 -0.13586646
1.9397641 1.744862 -0.13673517
1.9374796 1.7775817 -0.13779961
1.934876 1.810553 -0.13887395
1.9394743 1.8509585 -0.14050354
1.9361956 1.8845537 -0.14160165
1.940109 1.9258726 -0.14326589
1.9363174 1.9602834 -0.14440234
1.9407096 2.0037606 -0.14619221
1.9373969 2.0401032 -0.14744669
1.9342333 2.0773008 -0.14875329
1.9402678 2.1253052 -0.1508173
1.9377296 2.1648967 -0.15226735
1.9347962 2.2048671 -0.15373309
1.9326711 2.2466249 -0.15531206
1.9412731 2.3020267 -0.15781477
1.939993 2.3469515 -0.1595791
1.9390032 2.393291 -0.16142571
1.938325 2.4411423 -0.16335975
1.9379818 2.4906099 -0.16538687
1.9379979 2.5418084 -0.16751313
1.9384003 2.5948625 -0.16974518
1.9392167 2.6499054 -0.17209016
1.9404775 2.7070842 -0.17455585
2.8687823 1.7036614 -0.058239087
2.824821 1.7153482 -0.057686258
2.7562995 1.7110593 -0.056627825
2.6909935 1.7074021 -0.055628363
2.6510491 1.7188501 -0.055149358
2.5901234 1.7157558 -0.05423028
2.5318332 1.7131982 -0.05335997
2.4759839 1.7111393 -0.05253499
2.4223993 1.7095447 -0.051752217
2.3709178 1.708382 -0.051008794
2.3213913 1.7076212 -0.050302085
2.2736859 1.7072355 -0.049629726
2.2276759 1.7071981 -0.048989486
2.1832485 1.707486 -0.048379365
2.1402977 1.7080767 -0.047797471
2.0987272 1.7089491 -0.047242112
2.0584476 1.710084 -0.04671168
2.0193763 1.7114627 -0.046204712
1.981437 1.7130686 -0.045719847
1.9445591 1.7148857 -0.045255829
1.9395881 1.7447037 -0.045537207
1.937343 1.7774563 -0.045892626
1.9347779 1.8104613 -0.046251345
1.9394329 1.850919 -0.046795446
1.9361917 1.8845499 -0.047162086
1.9401596 1.9259228 -0.04771772
1.93635 1.9603163 -0.048095793
1.9406872 2.0037374 -0.048690561
1.9373369 2.0400403 -0.049107425
1.9341353 2.0771956 -0.049541615
1.9401115 2.125134 -0.050227527
1.9373374 2.1644585 -0.050704259
1.9349594 2.2050533 -0.051207028
1.9328002 2.2467749 -0.051732056
1.9413501 2.3021181 -0.052564252
1.9400346 2.3470018 -0.053150937
1.939009 2.3932981 -0.053764991
1.9382946 2.4411039 -0.054408137
1.9379151 2.4905241 -0.055082247
1.9378943 2.5416725 -0.055789337
1.9382592 2.5946734 -0.056531616
1.9390379 2.6496611 -0.057311472
1.9402605 2.7067814 -0.058131486
2.8687823 1.7036614 0.058239125
2.824821 1.7153482 0.057686295
2.7562995 1.7110593 0.056627862
2.6909935 1.7074021 0.0556284
2.6510494 1.7188503 0.055149399
2.5901234 1.7157558 0.054230314
2.5318332 1.7131982 0.053360004
2.4759839 1.7111393 0.052535024
2.4223993 1.7095447 0.051752251
2.3709178 1.708382 0.051008824
2.3213913 1.7076212 0.050302118
2.2736859 1.7072355 0.049629759
2.2276759 1.7071981 0.048989519
2.1832485 1.707486 0.048379395
2.1402981 1.708077 0.047797512
2.0987272 1.7089491 0.047242142
2.0584476 1.710084 0.046711709
2.0193763 1.7114627 0.046204742
1.981437 1.7130686 0.045719877
1.9445591 1.7148857 0.045255855
1.9395881 1.7447037 0.045537237
1.937343 1.7774563 0.045892656
1.9347779 1.8104613 0.046251372
1.9394329 1.850919 0.046795476
1.9361917 1.8845499 0.047162116
1.9401596 1.9259228 0.04771775
1.9363499 1.9603162 0.048095819
1.9406872 2.0037374 0.048690595
1.9373369 2.0400403 0.049107458
1.9341354 2.0771959 0.049541648
1.9401115 2.125134 0.050227556
1.9373372 2.1644583 0.050704289
1.9349593 2.2050531 0.051207058
1.9327999 2.2467747 0.051732086
1.94135 2.3021178 0.052564282
1.9400346 2.3470018 0.05315097
1.939009 2.3932981 0.053765025
1.9382946 2.4411039 0.05440817
1.9379151 2.4905241 0.05508228
1.9378943 2.5416725 0.05578937
1.9382595 2.5946739 0.05653166
1.9390379 2.6496611 0.057311509
1.9402605 2.7067814 0.058131523
2.8685057 1.7034972 0.17484258
2.8245268 1.7151697 0.17318158
2.7559702 1.7108549 0.1700014
2.6906309 1.7071719 0.16699837
2.6506717 1.7186054 0.16555913
2.5905933 1.7160671 0.16285276
2.5322413 1.7134745 0.16023602
2.4763341 1.7113814 0.15775554
2.4226937 1.7097524 0.15540189
2.3711596 1.7085561 0.15316652
2.321583 1.7077621 0.15104151
2.2738295 1.7073432 0.14901975
2.2277739 1.7072734 0.14709453
2.1833034 1.7075289 0.14525984
2.1403115 1.7080877 0.14351003
2.0987015 1.708928 0.14183992
2.0583844 1.7100315 0.14024478
2.0192778 1.7113793 0.13872017
1.9813049 1.7129545 0.13726202
1.9443949 1.7147409 0.13586649
1.9397639 1.7448618 0.13673519
1.9374796 1.7775817 0.13779964
1.934876 1.810553 0.13887398
1.9394741 1.8509583 0.14050356
1.9361956 1.8845537 0.14160168
1.9401088 1.9258724 0.1432659
1.9363174 1.9602834 0.14440237
1.9407098 2.0037608 0.14619225
1.937397 2.0401034 0.14744674
1.9342334 2.077301 0.14875333
1.9402678 2.1253052 0.15081735
1.9377298 2.164897 0.1522674
1.9347965 2.2048676 0.15373315
1.9326711 2.2466249 0.15531211
1.9412733 2.302027 0.15781482
1.9399931 2.3469517 0.15957916
1.9390032 2.393291 0.16142575
1.938325 2.4411423 0.16335979
1.937982 2.4906101 0.16538692
1.9379979 2.5418084 0.16751316
1.9384005 2.5948627 0.16974522
1.9392167 2.6499054 0.17209019
1.9404775 2.7070842 0.17455588
2.8695872 1.7041395 0.2919893
2.8255372 1.7157832 0.28920981
2.7568502 1.7114012 0.28388807
2.6913865 1.7076514 0.27886257
2.6513653 1.7190551 0.27645394
2.5902934 1.7158685 0.2718322
2.5318646 1.7132195 0.26745549
2.475884 1.7110703 0.26330656
2.4221742 1.7093859 0.25936964
2.3705738 1.7081341 0.25563043
2.3209345 1.7072852 0.25207573
2.2743514 1.7077351 0.24882814
2.2281966 1.7075973 0.24560373
2.1836314 1.7077857 0.24253079
2.1405499 1.7082781 0.23959993
2.0988545 1.7090528 0.23680246
2.0584564 1.7100914 0.23413044
2.0192726 1.7113749 0.23157652
1.981226 1.7128862 0.22913374
1.9442462 1.7146097 0.22679587
1.9398961 1.7449808 0.22827896
1.937537 1.7776341 0.23004718
1.9348595 1.8105377 0.23183191
1.9393494 1.8508393 0.23453917
1.9360001 1.8843634 0.23636357
1.9398082 1.9255741 0.23912865
1.9360521 1.9600148 0.24102984
1.9405494 2.0035951 0.2440307
1.9373082 2.04001 0.24613382
1.9342172 2.0772836 0.24832423
1.9403626 2.1254091 0.25178424
1.9378998 2.165087 0.25421491
1.9346484 2.2046988 0.2566199
1.9325945 2.246536 0.25926512
1.9413044 2.3020639 0.26345763
1.9400977 2.3470781 0.26641309
1.9391818 2.3935115 0.26950625
1.9385787 2.4414618 0.27274576
1.9383115 2.4910336 0.27614105
1.9384044 2.5423417 0.27970231
1.9378282 2.5940964 0.28328615
1.9387063 2.6492078 0.28720886
1.9400296 2.7064593 0.29133341
