# .PCD v0.7 - Point Cloud Data file format
VERSION 0.7
FIELDS x y z
SIZE 4 4 4
TYPE F F F
COUNT 1 1 1
WIDTH 431
HEIGHT 1
VIEWPOINT 0 0 0 1 0 0 0
POINTS 431
DATA ascii
-0.74916667 -2.2454584 -0.63427126
-0.72301376 -2.2402053 -0.63074875
-0.69307619 -2.2219582 -0.62366217
-0.66808361 -2.2183349 -0.62077117
-0.6432761 -2.2145963 -0.61792505
-0.61787701 -2.2079766 -0.614353
-0.59456176 -2.2080956 -0.61272979
-0.57133472 -2.2080894 -0.61113954
-0.5470717 -2.2034345 -0.60833293
-0.52489918 -2.2066877 -0.60777676
-0.50274062 -2.2098281 -0.60725075
-0.4802272 -2.2111628 -0.60629052
-0.45813417 -2.2141922 -0.60585666
-0.43554533 -2.2145464 -0.60475248
-0.414489 -2.2226884 -0.60583365
-0.39299816 -2.2288358 -0.60642654
-0.37144813 -2.2349052 -0.60705483
-0.35070136 -2.2464333 -0.60921997
-0.32951981 -2.2560985 -0.61093289
-0.30820557 -2.2657371 -0.61269265
-0.28675571 -2.2753503 -0.61449999
-0.26628339 -2.2945559 -0.61894977
-0.24495482 -2.3088071 -0.62211418
-0.22339751 -2.3231289 -0.62535101
-0.20160583 -2.3375237 -0.62866193
-0.18106428 -2.3715134 -0.63729352
-0.9206199 -2.3652332 -0.58596194
-0.88352019 -2.337662 -0.57695127
-0.84069562 -2.2922595 -0.56367809
-0.81090486 -2.2801387 -0.55870968
-0.78258407 -2.2709918 -0.55455601
-0.74910641 -2.2452776 -0.54645163
-0.72292787 -2.239939 -0.543396
-0.69310218 -2.2220416 -0.53737485
-0.66808498 -2.2183394 -0.5348649
-0.64325482 -2.2145228 -0.53239393
-0.61781454 -2.2077532 -0.5292803
-0.594482 -2.2077997 -0.52786446
-0.57123971 -2.2077222 -0.52647746
-0.54694653 -2.2029307 -0.52402693
-0.52476329 -2.2061164 -0.52353209
-0.50259566 -2.2091911 -0.5230636
-0.48006183 -2.2104013 -0.5222072
-0.45796409 -2.2133701 -0.52181947
-0.43620762 -2.2179139 -0.52185428
-0.41510305 -2.2259812 -0.52276677
-0.39357305 -2.2320962 -0.52326864
-0.37135652 -2.234354 -0.52291667
-0.35060048 -2.2457871 -0.52476013
-0.32941866 -2.2554061 -0.52622545
-0.30810532 -2.2650003 -0.52773154
-0.28665751 -2.2745712 -0.52927911
-0.26618373 -2.2936971 -0.53309482
-0.24485959 -2.3079097 -0.5358125
-0.22330761 -2.3221941 -0.53859305
-0.20152223 -2.3365543 -0.54143786
-0.18098526 -2.3704782 -0.54885995
-0.15897347 -2.3917797 -0.55340344
-0.13658777 -2.4133635 -0.55805969
-0.11553816 -2.4720788 -0.57134646
-0.092449434 -2.5062797 -0.57901293
-0.069287494 -2.5620155 -0.59170324
-0.045704607 -2.6562586 -0.61333549
-0.92066866 -2.3653586 -0.49337891
-0.88353443 -2.3376999 -0.48577401
-0.84064817 -2.29213 -0.47456396
-0.81083012 -2.2799287 -0.4703643
-0.78248441 -2.2707026 -0.46685097
-0.74895924 -2.2448366 -0.45999658
-0.72276145 -2.2394235 -0.45740893
-0.69403422 -2.2250295 -0.45305306
-0.66802883 -2.2181532 -0.45029363
-0.6431812 -2.2142694 -0.44819966
-0.61770695 -2.2073689 -0.44555187
-0.59436131 -2.2073512 -0.44434714
-0.57110751 -2.207211 -0.44316703
-0.54678994 -2.2022998 -0.44108006
-0.52459919 -2.2054267 -0.44065189
-0.50242567 -2.2084439 -0.44024631
-0.47987571 -2.2095444 -0.43950379
-0.4577758 -2.21246 -0.43916711
-0.43601829 -2.2169514 -0.43918633
-0.41490483 -2.2249184 -0.43993521
-0.3933771 -2.2309849 -0.44034854
-0.37179223 -2.2369757 -0.44078812
-0.35100159 -2.2483563 -0.44232914
-0.32979098 -2.2579553 -0.44355816
-0.30844963 -2.2675314 -0.44482198
-0.28697425 -2.2770844 -0.44612089
-0.26647186 -2.2961798 -0.44932696
-0.24512212 -2.310384 -0.45161298
-0.22321959 -2.3212788 -0.45329162
-0.20144059 -2.3356078 -0.45568091
-0.18090849 -2.3694725 -0.46191859
-0.15890473 -2.3907456 -0.46573853
-0.1365277 -2.412302 -0.4696537
-0.11548598 -2.4709623 -0.48082995
-0.092407256 -2.5051363 -0.48727956
-0.06925562 -2.560837 -0.49795753
-0.045683462 -2.6550298 -0.51616114
-0.92064583 -2.3652999 -0.40200371
-0.88348484 -2.3375688 -0.39579487
-0.84054905 -2.2918599 -0.38663739
-0.81071007 -2.2795911 -0.38320422
-0.782345 -2.270298 -0.3803305
-0.74878192 -2.2443051 -0.37472445
-0.72256964 -2.2388291 -0.3726058
-0.69381094 -2.2243137 -0.36903676
-0.66873276 -2.2204905 -0.36729366
-0.64384526 -2.2165556 -0.36557791
-0.61831933 -2.2095571 -0.36340329
-0.59424555 -2.2069213 -0.36199123
-0.57098258 -2.2067285 -0.36102122
-0.5466451 -2.2017164 -0.35930449
-0.52444857 -2.2047935 -0.35894769
-0.50227046 -2.2077615 -0.35860953
-0.47970742 -2.2087696 -0.35798973
-0.4576062 -2.2116401 -0.35770839
-0.4358483 -2.2160869 -0.35771713
-0.41472787 -2.2239695 -0.35831392
-0.39320245 -2.2299945 -0.35864437
-0.37162098 -2.2359452 -0.35899636
-0.35082892 -2.2472501 -0.36024016
-0.32962394 -2.2568114 -0.3612358
-0.30828902 -2.2663507 -0.36225995
-0.2868211 -2.2758691 -0.36331299
-0.26632321 -2.294899 -0.36591512
-0.24498269 -2.3090699 -0.36777276
-0.22341546 -2.3233156 -0.36967397
-0.20161586 -2.3376398 -0.37161973
-0.1810635 -2.3715031 -0.3767018
-0.15904002 -2.392781 -0.37981489
-0.13664325 -2.4143436 -0.38300586
-0.11558277 -2.4730332 -0.39211696
-0.092484422 -2.5072281 -0.3973754
-0.06931328 -2.5629692 -0.40608224
-0.045721404 -2.6572349 -0.42092633
-0.92060798 -2.3652027 -0.31163299
-0.88342583 -2.3374126 -0.30681205
-0.84045106 -2.2915926 -0.29969838
-0.81059569 -2.2792692 -0.29702994
-0.78221565 -2.2699227 -0.2947953
-0.74862248 -2.2438273 -0.29043624
-0.72239894 -2.2383003 -0.28878739
-0.69361556 -2.2236874 -0.28600824
-0.66852957 -2.2198157 -0.28465098
-0.64363557 -2.2158337 -0.28331509
-0.61809176 -2.2087438 -0.28161785
-0.59470743 -2.2086365 -0.28084499
-0.57141745 -2.2084091 -0.28008804
-0.54704481 -2.2033262 -0.27874768
-0.52482432 -2.206373 -0.27846679
-0.50262314 -2.2093117 -0.27820048
-0.4800311 -2.2102599 -0.27771205
-0.45790893 -2.2131033 -0.27749014
-0.43613115 -2.2175252 -0.27749342
-0.41460094 -2.2232888 -0.2776911
-0.3930766 -2.2292807 -0.27794331
-0.37149709 -2.2351999 -0.27821243
-0.35070312 -2.2464445 -0.27916926
-0.3295019 -2.255976 -0.27993757
-0.30817148 -2.2654865 -0.2807281
-0.28670865 -2.2749767 -0.28154114
-0.26621363 -2.2939546 -0.28355211
-0.24487974 -2.3080995 -0.28498909
-0.22331975 -2.3223205 -0.28646001
-0.20152789 -2.3366201 -0.28796554
-0.18098216 -2.3704376 -0.29189977
-0.15896761 -2.3916917 -0.2943103
-0.13658039 -2.413233 -0.29678148
-0.11552862 -2.4718747 -0.30383888
-0.092440799 -2.5060456 -0.3079125
-0.069280408 -2.5617533 -0.31465828
-0.045699634 -2.6559696 -0.32615983
-0.92118287 -2.3666797 -0.22218901
-0.88340211 -2.3373497 -0.21860935
-0.84039694 -2.291445 -0.21353273
-0.8105284 -2.2790802 -0.21162756
-0.78213662 -2.2696931 -0.2100316
-0.7485202 -2.2435205 -0.20691854
-0.7222876 -2.2379553 -0.20574026
-0.69348484 -2.2232683 -0.20375332
-0.66839254 -2.2193608 -0.20278306
-0.64349312 -2.2153432 -0.20182808
-0.6179353 -2.2081847 -0.20061262
-0.59454769 -2.2080433 -0.20005898
-0.57125527 -2.2077823 -0.19951673
-0.54687357 -2.2026367 -0.19855615
-0.52465266 -2.2056515 -0.19835329
-0.5024519 -2.208559 -0.19816084
-0.47985488 -2.2094486 -0.19780774
-0.45773506 -2.2122631 -0.1976472
-0.43596017 -2.216656 -0.19764709
-0.41481471 -2.2244351 -0.19796747
-0.39327592 -2.2304111 -0.19814557
-0.37168244 -2.236315 -0.19833581
-0.3508727 -2.2475307 -0.19901489
-0.32965884 -2.2570505 -0.19956116
-0.30831617 -2.2665503 -0.20012337
-0.28684142 -2.2760303 -0.20070167
-0.26633376 -2.2949898 -0.20213281
-0.24498893 -2.3091288 -0.2031561
-0.22341821 -2.3233442 -0.20420362
-0.20161583 -2.3376396 -0.20527591
-0.18105961 -2.3714521 -0.2080787
-0.15903512 -2.3927071 -0.20979632
-0.13663793 -2.4142497 -0.21155718
-0.11557672 -2.4729037 -0.21658687
-0.092479102 -2.5070841 -0.21949026
-0.069308996 -2.5628107 -0.22429851
-0.045718443 -2.6570628 -0.23249692
-0.92099971 -2.366209 -0.13307001
-0.88377589 -2.3383389 -0.13100758
-0.84073526 -2.2923675 -0.12796265
-0.81084651 -2.2799747 -0.12681966
-0.78243583 -2.2705615 -0.12586203
-0.74879175 -2.2443345 -0.12399407
-0.72254276 -2.2387459 -0.12328682
-0.69371694 -2.2240124 -0.1220939
-0.66861004 -2.220083 -0.12151137
-0.64344424 -2.2151749 -0.12089061
-0.61787546 -2.2079711 -0.12016008
-0.59448421 -2.2078075 -0.11982726
-0.57118869 -2.207525 -0.1195013
-0.54679936 -2.2023377 -0.11892369
-0.52457666 -2.205332 -0.11880109
-0.50237453 -2.2082191 -0.11868478
-0.47977284 -2.2090707 -0.11847126
-0.45765299 -2.2118664 -0.11837412
-0.4358786 -2.2162411 -0.11837313
-0.41473079 -2.223985 -0.11856321
-0.39319351 -2.2299438 -0.11866902
-0.37160203 -2.2358313 -0.11878213
-0.35079229 -2.2470155 -0.1191873
-0.32958126 -2.2565193 -0.11951373
-0.30824184 -2.2660038 -0.11984973
-0.28677073 -2.2754695 -0.12019542
-0.26626545 -2.2944014 -0.12105129
-0.24492496 -2.3085258 -0.12166354
-0.22335896 -2.3227282 -0.12229037
-0.20156156 -2.3370104 -0.12293202
-0.18100964 -2.3707974 -0.12460964
-0.15899076 -2.3920398 -0.12563789
-0.13659947 -2.4135702 -0.12669207
-0.11554367 -2.4721966 -0.12970357
-0.092452504 -2.5063629 -0.13144204
-0.069288976 -2.5620704 -0.1343213
-0.045705196 -2.6562929 -0.1392308
-0.92090207 -2.3659582 -0.044315916
-0.88367605 -2.3380744 -0.043628767
-0.8406288 -2.2920771 -0.042614147
-0.8107385 -2.279671 -0.042233232
-0.78232634 -2.2702439 -0.041914046
-0.74867737 -2.2439916 -0.041291449
-0.72242773 -2.2383895 -0.041055664
-0.69359785 -2.2236307 -0.040657904
-0.66849124 -2.2196884 -0.040463675
-0.64357853 -2.2156372 -0.040272515
-0.61799932 -2.2084134 -0.040028822
-0.59460092 -2.2082412 -0.039917789
-0.57129854 -2.2079494 -0.039809041
-0.54690039 -2.2027445 -0.039616324
-0.52467161 -2.2057312 -0.039575338
-0.5024637 -2.2086108 -0.039536446
-0.47985461 -2.2094474 -0.039465044
-0.45772952 -2.2122362 -0.039432559
-0.43595007 -2.2166045 -0.039432101
-0.41479617 -2.2243357 -0.039495174
-0.39325446 -2.2302895 -0.039530311
-0.37165859 -2.2361715 -0.03956788
-0.35084385 -2.2473457 -0.039702639
-0.32962891 -2.2568457 -0.03981128
-0.30828571 -2.2663262 -0.039923117
-0.2868109 -2.2757881 -0.040038176
-0.26630166 -2.2947135 -0.040323112
-0.24495783 -2.3088357 -0.040526986
-0.22338854 -2.3230357 -0.04073571
-0.20158793 -2.337316 -0.040949389
-0.18103282 -2.3711014 -0.041508105
-0.15901093 -2.3923433 -0.041850567
-0.13661665 -2.4138739 -0.042201675
-0.11555803 -2.4725039 -0.043204743
-0.092463925 -2.5066726 -0.043783806
-0.069297493 -2.5623851 -0.044742871
-0.045710795 -2.6566184 -0.046378221
-0.92090207 -2.3659582 0.044315942
-0.88367605 -2.3380744 0.043628797
-0.8406288 -2.2920771 0.042614177
-0.8107385 -2.279671 0.042233258
-0.78232628 -2.2702436 0.041914068
-0.74867737 -2.2439916 0.041291475
-0.72242773 -2.2383895 0.04105569
-0.69359785 -2.2236307 0.04065793
-0.66849124 -2.2196884 0.040463701
-0.64357853 -2.2156372 0.040272541
-0.61799932 -2.2084134 0.040028848
-0.59460092 -2.2082412 0.039917815
-0.57129854 -2.2079494 0.039809067
-0.54690039 -2.2027445 0.03961635
-0.52467161 -2.2057312 0.039575364
-0.5024637 -2.2086108 0.039536469
-0.47985461 -2.2094474 0.039465066
-0.45772952 -2.2122362 0.039432582
-0.43595007 -2.2166045 0.039432127
-0.41479617 -2.2243357 0.039495196
-0.39325446 -2.2302895 0.039530337
-0.37165859 -2.2361715 0.039567906
-0.35084385 -2.2473457 0.039702665
-0.32962891 -2.2568457 0.039811306
-0.30828571 -2.2663262 0.039923143
-0.2868109 -2.2757881 0.040038202
-0.26630166 -2.2947135 0.040323138
-0.24495783 -2.3088357 0.040527012
-0.22338854 -2.3230357 0.040735736
-0.20158793 -2.337316 0.040949415
-0.18103282 -2.3711014 0.041508131
-0.15901093 -2.3923433 0.041850597
-0.13661665 -2.4138739 0.042201702
-0.11555803 -2.4725039 0.043204773
-0.092463925 -2.5066726 0.043783832
-0.069297493 -2.5623851 0.044742901
-0.045710795 -2.6566184 0.046378251
-0.92099971 -2.366209 0.13307004
-0.88377583 -2.3383386 0.1310076
-0.8407352 -2.2923672 0.12796266
-0.81084651 -2.2799747 0.12681969
-0.78243572 -2.2705612 0.12586205
-0.74879175 -2.2443345 0.1239941
-0.72254276 -2.2387459 0.12328684
-0.69371694 -2.2240124 0.12209392
-0.66860998 -2.2200828 0.12151138
-0.64344424 -2.2151749 0.12089064
-0.61787546 -2.2079711 0.12016011
-0.59448421 -2.2078075 0.11982729
-0.57118869 -2.207525 0.11950133
-0.54679936 -2.2023377 0.11892372
-0.52457666 -2.205332 0.11880112
-0.50237453 -2.2082191 0.11868481
-0.47977281 -2.2090704 0.11847127
-0.45765299 -2.2118664 0.11837414
-0.4358786 -2.2162411 0.11837316
-0.41473073 -2.2239847 0.11856322
-0.39319351 -2.2299438 0.11866904
-0.37160203 -2.2358313 0.11878216
-0.35079229 -2.2470155 0.11918733
-0.32958126 -2.2565193 0.11951376
-0.30824184 -2.2660038 0.11984976
-0.28677073 -2.2754695 0.12019545
-0.26626545 -2.2944014 0.12105131
-0.24492496 -2.3085258 0.12166356
-0.22335896 -2.3227282 0.12229039
-0.20156156 -2.3370104 0.12293205
-0.18100964 -2.3707974 0.12460967
-0.15899076 -2.3920398 0.12563792
-0.13659947 -2.4135702 0.1266921
-0.11554367 -2.4721966 0.1297036
-0.092452504 -2.5063629 0.13144207
-0.069288976 -2.5620704 0.13432133
-0.045705192 -2.6562927 0.13923082
-0.92118287 -2.3666797 0.22218905
-0.88340199 -2.3373494 0.21860936
-0.84039694 -2.291445 0.21353276
-0.8105284 -2.2790802 0.21162759
-0.78213662 -2.2696931 0.21003164
-0.7485202 -2.2435205 0.20691858
-0.72228754 -2.2379551 0.20574027
-0.69348484 -2.2232683 0.20375335
-0.66839242 -2.2193604 0.20278306
-0.64349312 -2.2153432 0.20182811
-0.6179353 -2.2081847 0.20061266
-0.59454763 -2.2080431 0.20005898
-0.57125527 -2.2077823 0.19951677
-0.54687357 -2.2026367 0.19855618
-0.52465266 -2.2056515 0.19835332
-0.50245184 -2.2085588 0.19816086
-0.47985482 -2.2094483 0.19780776
-0.45773503 -2.2122629 0.19764721
-0.43596017 -2.216656 0.19764712
-0.41481465 -2.2244349 0.19796748
-0.39327592 -2.2304111 0.19814561
-0.37168244 -2.236315 0.19833584
-0.3508727 -2.2475307 0.19901492
-0.32965884 -2.2570505 0.19956119
-0.30831614 -2.2665501 0.20012338
-0.28684142 -2.2760303 0.2007017
-0.26633376 -2.2949898 0.20213285
-0.24498893 -2.3091288 0.20315613
-0.22341821 -2.3233442 0.20420365
-0.20161581 -2.3376393 0.20527591
-0.1810596 -2.3714519 0.20807871
-0.15903512 -2.3927071 0.20979635
-0.13663793 -2.4142497 0.21155721
-0.11557672 -2.4729037 0.21658692
-0.092479102 -2.5070841 0.21949029
-0.069308996 -2.5628107 0.22429855
-0.045718443 -2.6570628 0.23249696
-0.92060798 -2.3652027 0.31163302
-0.88342583 -2.3374126 0.30681211
-0.84045106 -2.2915926 0.29969844
-0.81059569 -2.2792692 0.29702997
-0.7822156 -2.2699225 0.2947953
-0.74862248 -2.2438273 0.29043627
-0.72239888 -2.2383001 0.28878739
-0.6936155 -2.2236872 0.28600824
-0.66852951 -2.2198155 0.28465098
-0.64363557 -2.2158337 0.28331512
-0.61809176 -2.2087438 0.28161788
-0.59470737 -2.2086365 0.28084502
-0.57141739 -2.2084088 0.28008804
-0.54704475 -2.203326 0.27874768
-0.52482414 -2.2063723 0.27846676
-0.50262308 -2.2093115 0.27820048
-0.48003107 -2.2102597 0.27771205
-0.45790893 -2.2131033 0.27749017
-0.43613112 -2.217525 0.27749345
-0.41460088 -2.2232885 0.2776911
-0.3930766 -2.2292807 0.27794334
-0.37149709 -2.2351999 0.27821246
-0.35070312 -2.2464445 0.27916929
-0.3295019 -2.255976 0.2799376
-0.30817148 -2.2654865 0.28072813
-0.28670865 -2.2749767 0.28154117
-0.26621363 -2.2939546 0.28355214
-0.24487974 -2.3080995 0.28498912
-0.22331975 -2.3223205 0.28646004
-0.20152788 -2.3366199 0.28796557
-0.18098213 -2.3704374 0.29189977
-0.15896761 -2.3916917 0.29431033
-0.13658039 -2.413233 0.29678151
-0.11552862 -2.4718747 0.30383891
-0.092440784 -2.5060453 0.3079125
